0.348861 -0.794947 0.428997
-0.326327 0.899429 -0.276045
-0.518807 -0.486402 -0.677237
0.875394 0.194339 -0.365819
-0.751652 -0.017327 0.646542
0.488924 0.329496 0.774495
0.104541 0.140266 -0.966977
0.386317 -0.655990 -0.599530
-0.577932 -0.760392 0.235332
-0.938560 0.310211 -0.108543
0.411138 0.885937 0.078872
-0.369495 0.697262 0.603260
-0.055299 -0.328134 0.919328
0.910078 -0.187623 0.257573
-0.541962 0.350159 -0.752859
-0.011294 -0.965435 -0.109579
0.448686 0.709312 -0.505814
-0.945006 -0.279946 -0.123635
0.803457 -0.467640 -0.245206
0.483958 -0.354546 0.765111
-0.096635 0.326292 0.922788
0.773885 0.489862 0.321785
0.174613 0.767979 0.589657
0.600068 -0.026957 -0.761413
-0.487508 -0.811530 -0.264919
-0.719801 0.637707 0.257832
-0.155761 0.656958 -0.719736
-0.196065 -0.794627 0.533042
-0.237066 -0.204670 -0.932652
-0.112199 -0.798921 -0.548075
0.128379 0.931126 -0.294152
0.408997 -0.854614 -0.187502
-0.512951 -0.527814 0.648638
-0.397085 0.024050 0.903823
-0.948804 -0.072260 0.276899
-0.801049 0.066138 -0.580456
-0.218664 0.958031 0.126602
0.481146 0.375524 -0.761805
0.734009 -0.567549 0.268203
-0.660591 0.659449 -0.343218
0.774740 0.132479 0.565871
-0.848080 0.303959 0.422346
0.168718 0.042677 0.966312
-0.850341 -0.459595 0.206801
0.958860 0.111224 0.003403
0.320091 -0.246271 -0.883735
-0.596750 0.310319 0.731178
-0.086345 -0.540289 -0.813972
0.795143 0.517172 -0.212156
-0.790060 -0.436981 -0.405522
0.034270 -0.621650 0.747618
-0.197133 0.308747 -0.914817
0.599754 -0.388879 -0.651879
0.239049 -0.930440 0.131885
-0.549945 0.827839 0.037339
-0.565508 -0.004578 -0.810704
0.116255 0.508809 -0.833039
0.035826 0.933715 0.317636
0.584173 -0.764948 0.060067
-0.324298 -0.921079 -0.025925
0.444462 0.641339 0.589254
0.437776 0.004149 0.870540
0.900789 0.237978 0.268184
0.756400 -0.151247 0.580027
-0.141831 -0.916833 0.282462
-0.787433 0.421582 -0.425566
0.685994 0.695320 -0.023352
-0.031772 0.652729 0.738377
0.398025 0.121321 -0.883850
-0.505481 0.800473 0.302373
0.873565 -0.225836 -0.339760
0.056020 -0.856284 0.454061
-0.776961 -0.266603 0.553094
-0.280233 0.058581 -0.942912
-0.928485 0.072852 -0.348475
0.133819 0.820886 -0.528739
-0.229646 0.804076 -0.533805
-0.165735 -0.110186 0.962429
0.759394 0.389085 -0.465043
0.473571 0.801433 0.302817
-0.710163 0.689557 -0.102845
0.833071 -0.014333 -0.490590
-0.351396 0.516417 0.768489
0.269258 -0.462443 0.809877
0.847678 -0.448412 0.090920
0.188927 0.961439 0.135118
-0.558146 -0.240381 -0.773531
-0.886678 0.444845 0.081187
0.320830 0.570366 -0.727550
-0.342835 0.521316 -0.767773
0.645485 -0.004566 0.725157
0.950782 -0.068075 -0.146276
-0.419379 -0.379535 0.802909
0.129904 0.272710 0.932556
-0.512129 0.673491 -0.521968
-0.992398 -0.020702 0.057581
0.204373 -0.181882 0.936908
-0.152750 -0.512920 0.819082
0.744448 -0.387841 -0.475995
0.900425 0.324592 -0.152129
0.175835 0.572385 0.779445
0.112321 -0.809780 -0.525500
0.220563 -0.443467 -0.837892
-0.772480 -0.450541 0.422727
-0.780991 -0.264121 -0.549947
-0.072769 0.798342 0.575972
-0.214261 0.965504 -0.099657
0.573705 -0.693291 0.346635
0.911405 0.321910 0.064507
-0.652352 -0.718199 -0.159968
-0.034277 0.117184 0.975831
-0.982392 -0.065565 -0.153095
0.672295 -0.347965 0.600187
0.093476 0.978321 -0.088119
-0.063471 0.888575 -0.430555
0.062597 -0.920180 -0.301643
-0.160454 0.899511 0.384953
0.517278 -0.688617 -0.438823
-0.898552 -0.271848 -0.327254
-0.689478 0.378676 -0.607603
-0.122222 0.493624 -0.844663
-0.348427 -0.825526 0.394559
0.685119 -0.502628 0.461894
-0.331570 -0.551485 -0.739133
-0.306972 -0.857975 -0.354689
-0.867351 -0.059780 0.481704
0.024547 -0.957939 0.169538
0.731944 -0.616929 0.069078
